38602289.5514 3347342.32275 7.29099989 255 0 0
38602288.7474 3347342.1308 7.28100014 255 0 0
38602296.5954 3347343.78278 7.44500017 255 0 0
38602296.2854 3347343.71381 7.4380002 255 0 0
38602295.2254 3347343.48181 7.41400003 255 0 0
38602294.3734 3347343.30377 7.39099979 255 0 0
38602293.4244 3347343.0968 7.36999989 255 0 0
38602291.7054 3347342.7218 7.32999992 255 0 0
38602296.6084 3347343.69879 7.44399977 255 0 0
38602295.9834 3347343.55481 7.43300009 255 0 0
38602295.6394 3347343.47778 7.42600012 255 0 0
38602294.8464 3347343.31079 7.40500021 255 0 0
38602294.4094 3347343.21777 7.39400005 255 0 0
38602292.9304 3347342.89581 7.36000013 255 0 0
38602291.0544 3347342.48981 7.31500006 255 0 0
38602290.3734 3347342.3288 7.30600023 255 0 0
38602289.5794 3347342.15277 7.28900003 255 0 0
38602288.7334 3347341.96075 7.27299976 255 0 0
38602296.9344 3347343.6698 7.45200014 255 0 0
38602296.3224 3347343.5368 7.4380002 255 0 0
38602296.0014 3347343.46277 7.43200016 255 0 0
38602295.2744 3347343.30377 7.41499996 255 0 0
38602294.4334 3347343.12476 7.39400005 255 0 0
38602293.4544 3347342.9198 7.3670001 255 0 0
38602292.3594 3347342.67981 7.34299994 255 0 0
38602291.7514 3347342.54376 7.32999992 255 0 0
38602289.6004 3347342.05975 7.28800011 255 0 0
38602288.8494 3347341.86877 7.28299999 255 0 0
38602288.1524 3347341.66278 7.29300022 255 0 0
38602296.6484 3347343.52179 7.44199991 255 0 0
38602295.6534 3347343.3028 7.42000008 255 0 0
38602294.8734 3347343.13477 7.40100002 255 0 0
38602292.9394 3347342.71979 7.35300016 255 0 0
38602291.1074 3347342.31177 7.31500006 255 0 0
38602290.3754 3347342.15076 7.29799986 255 0 0
38602289.5954 3347341.97479 7.28299999 255 0 0
38602296.9344 3347343.50781 7.44399977 255 0 0
38602296.0164 3347343.29779 7.42700005 255 0 0
38602295.2934 3347343.13776 7.41099977 255 0 0
38602294.8744 3347343.0528 7.39900017 255 0 0
38602292.3794 3347342.51178 7.33900023 255 0 0
38602290.4094 3347342.06677 7.30100012 255 0 0
38602289.6114 3347341.89081 7.28299999 255 0 0
38602288.8784 3347341.69879 7.28100014 255 0 0
38602288.3814 3347341.4978 7.31400013 255 0 0
38602297.2484 3347343.48981 7.454 255 0 0
38602296.3604 3347343.29279 7.43400002 255 0 0
38602295.6844 3347343.14178 7.42000008 255 0 0
38602294.4424 3347342.88281 7.38600016 255 0 0
38602293.5024 3347342.67377 7.36600018 255 0 0
38602291.7714 3347342.29779 7.32499981 255 0 0
38602291.1124 3347342.14978 7.31099987 255 0 0
38602288.4884 3347341.42078 7.32499981 255 0 0
38602296.9604 3347343.34778 7.44299984 255 0 0
38602296.6734 3347343.28076 7.4380002 255 0 0
38602294.8894 3347342.89178 7.39599991 255 0 0
38602294.0114 3347342.69775 7.37699986 255 0 0
38602292.9614 3347342.47479 7.3499999 255 0 0
38602290.4424 3347341.90381 7.30100012 255 0 0
38602289.6314 3347341.72778 7.28200006 255 0 0
38602288.8134 3347341.53375 7.26999998 255 0 0
38602297.2584 3347343.32581 7.44899988 255 0 0
38602296.3624 3347343.12976 7.42799997 255 0 0
38602296.0504 3347343.05377 7.42500019 255 0 0
38602295.3164 3347342.89478 7.40700006 255 0 0
38602294.4734 3347342.71478 7.38600016 255 0 0
38602293.5014 3347342.50781 7.36100006 255 0 0
38602292.3984 3347342.26581 7.33599997 255 0 0
38602291.7814 3347342.12878 7.32200003 255 0 0
38602288.7024 3347341.25476 7.34600019 255 0 0
38602296.9754 3347343.17578 7.44000006 255 0 0
38602296.6884 3347343.10876 7.43599987 255 0 0
38602295.7044 3347342.88678 7.41599989 255 0 0
38602294.9134 3347342.71777 7.39599991 255 0 0
38602294.0454 3347342.52179 7.37799978 255 0 0
38602292.9824 3347342.2998 7.34899998 255 0 0
38602291.1804 3347341.88776 7.31500006 255 0 0
38602290.4364 3347341.72681 7.29699993 255 0 0
38602297.0004 3347343.09277 7.44299984 255 0 0
38602296.3964 3347342.95679 7.42999983 255 0 0
38602296.0564 3347342.88379 7.42199993 255 0 0
38602295.3364 3347342.72278 7.40700006 255 0 0
38602293.5444 3347342.33276 7.36399984 255 0 0
38602292.4104 3347342.0918 7.33400011 255 0 0
38602289.6444 3347341.46777 7.28000021 255 0 0
38602288.8194 3347341.27277 7.2670002 255 0 0
38602288.9104 3347341.0838 7.36800003 0 255 0
38602297.2904 3347343.07379 7.44700003 255 0 0
38602296.4034 3347342.87579 7.4289999 255 0 0
38602295.7244 3347342.72375 7.41499996 255 0 0
38602294.4904 3347342.46075 7.38199997 255 0 0
38602291.8024 3347341.8728 7.32000017 255 0 0
38602296.7174 3347342.87079 7.43300009 255 0 0
38602296.0924 3347342.72479 7.42299986 255 0 0
38602294.0324 3347342.28479 7.36999989 255 0 0
38602292.9734 3347342.06079 7.34100008 255 0 0
38602292.4254 3347341.93378 7.33199978 255 0 0
38602291.1614 3347341.64679 7.30800009 255 0 0
38602290.4634 3347341.4848 7.296 255 0 0
38602289.6624 3347341.30676 7.27799988 255 0 0
38602289.0844 3347340.9278 7.38500023 0 255 0
38602297.3074 3347342.91681 7.4460001 255 0 0
38602297.0324 3347342.85278 7.44099998 255 0 0
38602296.4174 3347342.71777 7.42600012 255 0 0
38602295.3694 3347342.48181 7.40500021 255 0 0
38602294.5244 3347342.30078 7.38399982 255 0 0
38602293.5484 3347342.09277 7.3579998 255 0 0
38602292.9884 3347341.97681 7.34200001 255 0 0
38602291.8284 3347341.71179 7.32000017 255 0 0
38602291.1804 3347341.56281 7.30800009 255 0 0
38602289.1304 3347341.0318 7.29899979 0 255 0
38602296.7654 3347342.70276 7.4369998 255 0 0
38602295.7554 3347342.48279 7.41300011 255 0 0
38602294.0614 3347342.11877 7.36999989 255 0 0
38602293.0254 3347341.8938 7.34499979 255 0 0
38602291.2234 3347341.4798 7.3119998 255 0 0
38602290.4944 3347341.31677 7.296 255 0 0
38602289.6704 3347341.13977 7.27600002 0 255 0
38602289.2454 3347340.94977 7.3119998 0 255 0
38602297.3474 3347342.7428 7.44700003 255 0 0
38602297.0624 3347342.68079 7.44099998 255 0 0
38602296.1244 3347342.46979 7.421 255 0 0
38602295.4064 3347342.3078 7.40600014 255 0 0
38602295.0044 3347342.21979 7.39699984 255 0 0
38602294.5394 3347342.12781 7.38100004 255 0 0
38602293.5654 3347341.91876 7.35599995 255 0 0
38602292.4384 3347341.67578 7.32800007 255 0 0
38602289.1964 3347340.66876 7.39300013 0 255 0
38602296.7894 3347342.52979 7.43499994 255 0 0
38602296.4734 3347342.45978 7.42799997 255 0 0
38602295.7814 3347342.30878 7.41099977 255 0 0
38602293.0544 3347341.71777 7.34399986 255 0 0
38602291.8574 3347341.4538 7.31699991 255 0 0
38602291.2394 3347341.30377 7.30999994 255 0 0
38602290.5484 3347341.14081 7.29899979 255 0 0
38602289.6764 3347340.96277 7.27199984 0 255 0
38602289.5024 3347340.77679 7.33799982 0 255 0
38602297.3824 3347342.57581 7.44700003 255 0 0
38602297.0934 3347342.51477 7.44000006 255 0 0
38602296.8034 3347342.44775 7.43499994 255 0 0
38602296.1444 3347342.30579 7.41800022 255 0 0
38602295.0164 3347342.05481 7.39300013 255 0 0
38602294.5664 3347341.96179 7.38000011 255 0 0
38602294.1004 3347341.86078 7.36800003 255 0 0
38602292.4684 3347341.50879 7.32700014 255 0 0
38602289.2774 3347340.50177 7.39799976 0 255 0
38602297.4114 3347342.4978 7.44999981 255 0 0
38602296.5084 3347342.30078 7.42799997 255 0 0
38602295.4474 3347342.0658 7.40399981 255 0 0
38602294.6134 3347341.88281 7.38500023 255 0 0
38602293.6314 3347341.6748 7.3579998 255 0 0
38602291.9264 3347341.29279 7.32200003 255 0 0
38602289.3544 3347340.42676 7.40500021 0 255 0
38602296.8484 3347342.28479 7.43499994 255 0 0
38602295.8384 3347342.06476 7.41099977 255 0 0
38602295.0494 3347341.8938 7.39099979 255 0 0
38602293.1244 3347341.47278 7.34600019 255 0 0
38602292.5464 3347341.34576 7.33199978 255 0 0
38602291.3084 3347341.0578 7.31099987 255 0 0
38602290.6544 3347340.89478 7.3039999 255 0 0
38602289.7524 3347340.7168 7.27400017 0 255 0
38602289.3904 3347340.3418 7.40500021 255 0 0
38602297.4554 3347342.32776 7.44999981 255 0 0
38602297.1564 3347342.2688 7.44000006 255 0 0
38602296.5684 3347342.12976 7.43100023 255 0 0
38602296.2304 3347342.05676 7.42199993 255 0 0
38602295.4954 3347341.89581 7.40399981 255 0 0
38602294.6564 3347341.71381 7.3829999 255 0 0
38602294.2174 3347341.61176 7.37599993 255 0 0
38602293.7134 3347341.50378 7.36299992 255 0 0
38602292.0144 3347341.1228 7.32700014 255 0 0
38602289.8344 3347340.63275 7.28000021 255 0 0
38602289.4514 3347340.25879 7.40899992 255 0 0
38602288.6744 3347340.04376 7.41099977 0 255 0
38602296.8904 3347342.11578 7.43499994 255 0 0
38602295.8764 3347341.89581 7.40899992 255 0 0
38602295.0764 3347341.72681 7.38800001 255 0 0
38602294.2224 3347341.52777 7.37300014 255 0 0
38602293.1924 3347341.30176 7.34800005 255 0 0
38602291.3784 3347340.88776 7.3119998 255 0 0
38602290.6874 3347340.72577 7.30100012 255 0 0
38602289.9224 3347340.54779 7.28800011 255 0 0
38602297.1904 3347342.09381 7.4369998 255 0 0
38602296.2454 3347341.88379 7.41499996 255 0 0
38602295.5044 3347341.72278 7.39699984 255 0 0
38602293.7134 3347341.32977 7.35400009 255 0 0
38602292.6064 3347341.08478 7.32800007 255 0 0
38602292.0234 3347340.94678 7.31899977 255 0 0
38602290.0294 3347340.45679 7.29699993 255 0 0
38602289.4844 3347340.08179 7.40500021 255 0 0
38602297.4744 3347342.07477 7.44000006 255 0 0
38602297.2014 3347342.0108 7.43599987 255 0 0
38602296.5774 3347341.87677 7.41900015 255 0 0
38602295.8814 3347341.72479 7.40199995 255 0 0
38602294.6944 3347341.45581 7.37799978 255 0 0
38602293.1734 3347341.12976 7.33799982 255 0 0
38602291.3564 3347340.71381 7.30299997 255 0 0
38602290.1244 3347340.3728 7.30600023 255 0 0
38602290.1714 3347340.19379 7.39699984 255 0 0
38602297.2184 3347341.92877 7.43599987 255 0 0
38602296.9144 3347341.86377 7.42799997 255 0 0
38602296.2594 3347341.72076 7.41200018 255 0 0
38602295.1074 3347341.47076 7.3829999 255 0 0
38602294.2414 3347341.27277 7.36600018 255 0 0
38602293.2024 3347341.04675 7.34000015 255 0 0
38602292.6424 3347340.91876 7.329 255 0 0
38602291.4264 3347340.62976 7.31099987 255 0 0
38602290.7434 3347340.46777 7.30000019 255 0 0
38602290.2194 3347340.29077 7.31699991 255 0 0
38602290.2534 3347340.11279 7.40600014 255 0 0
38602289.5134 3347339.91479 7.40500021 255 0 0
38602297.4974 3347341.91779 7.43900013 255 0 0
38602296.5954 3347341.71979 7.41800022 255 0 0
38602295.5174 3347341.48376 7.39099979 255 0 0
38602294.7084 3347341.29779 7.37599993 255 0 0
38602293.7524 3347341.08679 7.35400009 255 0 0
38602292.0374 3347340.7038 7.31599998 255 0 0
38602296.9204 3347341.70581 7.42299986 255 0 0
38602296.6144 3347341.63379 7.41800022 255 0 0
38602295.9144 3347341.48279 7.4000001 255 0 0
38602295.1254 3347341.31079 7.38100004 255 0 0
38602294.2544 3347341.11176 7.36299992 255 0 0
38602293.2294 3347340.88379 7.34000015 255 0 0
38602291.4064 3347340.46777 7.3039999 255 0 0
38602290.7294 3347340.30475 7.29500008 255 0 0
38602290.4714 3347340.12878 7.34499979 255 0 0
38602290.3194 3347339.94977 7.41099977 255 0 0
38602289.5284 3347339.75079 7.40399981 255 0 0
38602297.5414 3347341.7478 7.44000006 255 0 0
38602297.2564 3347341.68579 7.43300009 255 0 0
38602296.3214 3347341.47375 7.41400003 255 0 0
38602295.9614 3347341.39581 7.40399981 255 0 0
38602295.5874 3347341.31177 7.39599991 255 0 0
38602294.7564 3347341.12781 7.37699986 255 0 0
38602293.8064 3347340.91681 7.35500002 255 0 0
38602292.7174 3347340.67078 7.33199978 255 0 0
38602292.1184 3347340.53278 7.3210001 255 0 0
38602297.0024 3347341.52277 7.42999983 255 0 0
38602296.6834 3347341.4538 7.421 255 0 0
38602296.0094 3347341.2998 7.40799999 255 0 0
38602294.3314 3347340.93176 7.3670001 255 0 0
38602293.3274 3347340.7038 7.34600019 255 0 0
38602291.5074 3347340.28979 7.30999994 255 0 0
38602290.6744 3347339.95178 7.36299992 255 0 0
38602297.5914 3347341.56781 7.43900013 255 0 0
38602297.3234 3347341.50281 7.43599987 255 0 0
38602296.3804 3347341.29279 7.41400003 255 0 0
38602295.2374 3347341.04376 7.38500023 255 0 0
38602294.8244 3347340.94678 7.37799978 255 0 0
38602293.8794 3347340.73578 7.35699987 255 0 0
38602292.7914 3347340.49078 7.33300018 255 0 0
38602292.1854 3347340.35376 7.3210001 255 0 0
38602290.8924 3347340.04077 7.30299997 255 0 0
38602290.4874 3347339.68878 7.41800022 255 0 0
38602289.6794 3347339.48981 7.40899992 255 0 0
38602297.6104 3347341.48077 7.4380002 255 0 0
38602296.7284 3347341.28076 7.42000008 255 0 0
38602296.4044 3347341.20581 7.41400003 255 0 0
38602296.0344 3347341.12878 7.40199995 255 0 0
38602293.4014 3347340.52979 7.34800005 255 0 0
38602292.8434 3347340.40277 7.33599997 255 0 0
38602292.2244 3347340.26581 7.32200003 255 0 0
38602291.5604 3347340.11676 7.30700016 255 0 0
38602297.0384 3347341.27478 7.42199993 255 0 0
38602296.3974 3347341.12976 7.40799999 255 0 0
38602295.2514 3347340.87976 7.37900019 255 0 0
38602294.3554 3347340.6828 7.35699987 255 0 0
38602293.3544 3347340.4538 7.33699989 255 0 0
38602292.8404 3347340.32477 7.33199978 255 0 0
38602290.8944 3347339.87378 7.296 0 255 0
38602290.4674 3347339.52075 7.40899992 255 0 0
38602289.6854 3347339.32178 7.40199995 255 0 0
38602288.8894 3347339.10577 7.40199995 255 0 0
38602297.6384 3347341.31879 7.43499994 255 0 0
38602297.3304 3347341.2608 7.42299986 255 0 0
38602296.7284 3347341.12177 7.41099977 255 0 0
38602294.8264 3347340.70081 7.36600018 255 0 0
38602293.9014 3347340.48676 7.34800005 255 0 0
38602293.3774 3347340.36877 7.33699989 255 0 0
38602292.2334 3347340.10278 7.31599998 255 0 0
38602291.5754 3347339.95276 7.30299997 255 0 0
38602290.9594 3347339.78876 7.30100012 0 255 0
38602297.0724 3347341.10376 7.42000008 255 0 0
38602296.0714 3347340.8808 7.39699984 255 0 0
38602295.2874 3347340.70776 7.37799978 255 0 0
38602294.4044 3347340.50977 7.3579998 255 0 0
38602293.4224 3347340.28076 7.34100008 255 0 0
38602291.6234 3347339.86481 7.30700016 255 0 0
38602291.0594 3347339.70081 7.3119998 0 255 0
38602291.1154 3347339.52979 7.4000001 0 255 0
38602290.4974 3347339.34778 7.40700006 255 0 0
38602289.7354 3347339.14978 7.40299988 255 0 0
38602288.9254 3347338.9328 7.40199995 255 0 0
38602297.6774 3347341.13879 7.43400002 255 0 0
38602297.3764 3347341.0788 7.42299986 255 0 0
38602296.7734 3347340.9408 7.41099977 255 0 0
38602296.4434 3347340.86578 7.40399981 255 0 0
38602295.7294 3347340.70178 7.38999987 255 0 0
38602294.8704 3347340.51978 7.36600018 255 0 0
38602293.9404 3347340.30676 7.34700012 255 0 0
38602292.9084 3347340.05878 7.33199978 255 0 0
38602292.2894 3347339.92078 7.31799984 255 0 0
38602291.2004 3347339.43677 7.40799999 0 255 0
38602289.9614 3347338.87878 7.51399994 0 255 0
38602297.3954 3347340.99481 7.42299986 255 0 0
38602297.1034 3347340.92676 7.41699982 255 0 0
38602296.1194 3347340.70178 7.39699984 255 0 0
38602295.3284 3347340.52979 7.37699986 255 0 0
38602294.4544 3347340.33075 7.3579998 255 0 0
38602293.4394 3347340.10278 7.33599997 255 0 0
38602291.6654 3347339.68579 7.30499983 255 0 0
38602291.2674 3347339.52179 7.33199978 0 255 0
38602290.5284 3347339.16876 7.40399981 255 0 0
38602297.4244 3347340.90875 7.42399979 255 0 0
38602296.4934 3347340.6958 7.40500021 255 0 0
38602295.7664 3347340.53278 7.38800001 255 0 0
38602293.9754 3347340.13776 7.34499979 255 0 0
38602292.9624 3347339.88879 7.33199978 255 0 0
38602292.3334 3347339.75177 7.31599998 255 0 0
38602291.3394 3347339.26776 7.41800022 255 0 0
38602290.0404 3347338.89276 7.4289999 0 255 0
38602289.9104 3347338.70575 7.50099993 0 255 0
38602297.7144 3347340.89478 7.42799997 255 0 0
38602296.8334 3347340.69275 7.40999985 255 0 0
38602296.1574 3347340.53876 7.39599991 255 0 0
38602295.3874 3347340.36481 7.37900019 255 0 0
38602294.9384 3347340.27075 7.36600018 255 0 0
38602294.0054 3347340.0578 7.34700012 255 0 0
38602293.4844 3347339.93976 7.33599997 255 0 0
38602291.6864 3347339.52277 7.30200005 255 0 0
38602291.4634 3347339.35779 7.35099983 0 255 0
38602290.6174 3347339.00677 7.40899992 255 0 0
38602297.1444 3347340.68079 7.41300011 255 0 0
38602296.5114 3347340.53375 7.40100002 255 0 0
38602295.7974 3347340.36975 7.38700008 255 0 0
38602295.4024 3347340.27979 7.37799978 255 0 0
38602294.4974 3347340.0838 7.35500002 255 0 0
38602292.9534 3347339.72577 7.32499981 255 0 0
38602291.3974 3347339.10376 7.42000008 255 0 0
38602290.6134 3347338.92078 7.40600014 255 0 0
38602290.0224 3347338.72681 7.42199993 0 255 0
38602289.0514 3347338.5058 7.40100002 255 0 0
38602297.7434 3347340.72479 7.42600012 255 0 0
38602297.4524 3347340.66278 7.41800022 255 0 0
38602296.8484 3347340.52478 7.40600014 255 0 0
38602294.9894 3347340.09875 7.36800003 255 0 0
38602294.0404 3347339.8858 7.34600019 255 0 0
38602292.3794 3347339.50079 7.31400013 255 0 0
38602289.0514 3347338.41779 7.39900017 255 0 0
38602297.1724 3347340.50378 7.41099977 255 0 0
38602296.5484 3347340.35577 7.40100002 255 0 0
38602296.1854 3347340.27777 7.39099979 255 0 0
38602295.4144 3347340.10376 7.37400007 255 0 0
38602294.5374 3347339.90479 7.35500002 255 0 0
38602293.5444 3347339.6748 7.33599997 255 0 0
38602292.9944 3347339.54675 7.32499981 255 0 0
38602291.6674 3347339.25879 7.29099989 0 255 0
38602291.3764 3347338.92377 7.41300011 255 0 0
38602289.9774 3347338.5448 7.41200018 0 255 0
38602297.7714 3347340.54877 7.42500019 255 0 0
38602297.4884 3347340.48578 7.41900015 255 0 0
38602295.0274 3347339.92078 7.36800003 255 0 0
38602294.0954 3347339.70776 7.34899998 255 0 0
38602293.5754 3347339.58881 7.33799982 255 0 0
38602293.0374 3347339.46075 7.329 255 0 0
38602292.4214 3347339.32178 7.31500006 255 0 0
38602291.7494 3347339.17175 7.30000019 255 0 0
38602291.4394 3347338.83881 7.41900015 255 0 0
38602290.7444 3347338.6568 7.41499996 0 255 0
38602296.8964 3347340.26477 7.40500021 255 0 0
38602296.5774 3347340.18781 7.4000001 255 0 0
38602296.2444 3347340.10675 7.39499998 255 0 0
38602295.4764 3347339.93176 7.37900019 255 0 0
38602293.6134 3347339.50378 7.34100008 255 0 0
38602291.8324 3347339.08777 7.30800009 255 0 0
38602291.8934 3347338.92175 7.39499998 255 0 0
38602291.0784 3347338.4068 7.53499985 0 255 0
38602297.5334 3347340.32178 7.41900015 255 0 0
38602297.2384 3347340.25476 7.41300011 255 0 0
38602296.6174 3347340.10675 7.40299988 255 0 0
38602294.6584 3347339.65179 7.36499977 255 0 0
38602294.1654 3347339.54279 7.35300016 255 0 0
38602293.1154 3347339.29578 7.33400011 255 0 0
38602292.0004 3347338.84277 7.40500021 255 0 0
38602291.5294 3347338.67578 7.42399979 255 0 0
38602290.7694 3347338.49377 7.41200018 0 255 0
38602296.9724 3347340.09479 7.41099977 255 0 0
38602296.3134 3347339.93878 7.39900017 255 0 0
38602295.1374 3347339.66876 7.375 255 0 0
38602294.2164 3347339.45575 7.35699987 255 0 0
38602293.7324 3347339.33575 7.35099983 255 0 0
38602292.5534 3347339.07178 7.32299995 255 0 0
38602290.9814 3347338.4118 7.43400002 0 255 0
38602297.5784 3347340.14978 7.41800022 255 0 0
38602297.3104 3347340.0788 7.41699982 255 0 0
38602296.6734 3347339.93378 7.40399981 255 0 0
38602296.3574 3347339.85077 7.40199995 255 0 0
38602295.5824 3347339.6778 7.3829999 255 0 0
38602295.1674 3347339.58179 7.375 255 0 0
38602294.7224 3347339.47876 7.36600018 255 0 0
38602293.1914 3347339.1228 7.33599997 255 0 0
38602292.5774 3347338.98578 7.32200003 255 0 0
38602292.0914 3347338.8338 7.33099985 255 0 0
38602292.1514 3347338.67078 7.41699982 255 0 0
38602291.6644 3347338.50476 7.43300009 255 0 0
38602291.1914 3347338.3288 7.45499992 0 255 0
38602297.6074 3347340.06177 7.41800022 255 0 0
38602297.0094 3347339.92279 7.40700006 255 0 0
38602295.5984 3347339.5918 7.38100004 255 0 0
38602294.2994 3347339.28076 7.35900021 255 0 0
38602293.7594 3347339.16376 7.34499979 255 0 0
38602293.2564 3347339.03479 7.34100008 255 0 0
38602292.6094 3347338.8988 7.3210001 255 0 0
38602297.3454 3347339.8988 7.41400003 255 0 0
38602296.7114 3347339.75281 7.40100002 255 0 0
38602296.3744 3347339.67175 7.39499998 255 0 0
38602295.6344 3347339.49579 7.3829999 255 0 0
38602294.7514 3347339.29877 7.36100006 255 0 0
38602293.8054 3347339.06775 7.34800005 255 0 0
38602293.2614 3347338.9408 7.33799982 255 0 0
38602292.2824 3347338.65076 7.34800005 255 0 0
38602292.3024 3347338.48981 7.42799997 0 255 0
38602291.6554 3347338.32275 7.42299986 0 255 0
38602291.3844 3347338.15076 7.46999979 0 255 0
38602297.6334 3347339.88379 7.41599989 255 0 0
38602296.7094 3347339.66876 7.39699984 255 0 0
38602294.3084 3347339.10181 7.35400009 255 0 0
38602292.5934 3347338.71875 7.3130002 255 0 0
38602297.3474 3347339.73279 7.40700006 255 0 0
38602297.0514 3347339.65979 7.40399981 255 0 0
38602296.3794 3347339.50378 7.38999987 255 0 0
38602295.6344 3347339.32776 7.37699986 255 0 0
38602294.7714 3347339.12878 7.35900021 255 0 0
38602293.8324 3347338.89679 7.34700012 255 0 0
38602292.3724 3347338.31775 7.43300009 0 255 0
38602291.6514 3347338.15076 7.41900015 0 255 0
38602291.5204 3347337.98077 7.48400021 0 255 0
38602297.6484 3347339.72278 7.41300011 255 0 0
38602294.3004 3347338.93976 7.34899998 255 0 0
38602293.2924 3347338.6908 7.33699989 255 0 0
38602292.5094 3347338.55676 7.29799986 0 255 0
38602297.0554 3347339.4978 7.4000001 255 0 0
38602295.2274 3347339.06677 7.3670001 255 0 0
38602294.7914 3347338.96277 7.35900021 255 0 0
38602292.3754 3347338.15076 7.43200016 255 0 0
38602297.3814 3347339.48279 7.40700006 255 0 0
38602296.4074 3347339.25476 7.38899994 255 0 0
38602295.6764 3347339.07581 7.37900019 255 0 0
38602294.8014 3347338.87677 7.35900021 255 0 0
38602293.8654 3347338.64478 7.34800005 255 0 0
38602293.3094 3347338.51678 7.33599997 255 0 0
38602292.7154 3347338.22076 7.4000001 0 255 0
38602297.0864 3347339.31775 7.40199995 255 0 0
38602295.2374 3347338.88776 7.36499977 255 0 0
38602294.3374 3347338.67175 7.35099983 255 0 0
38602292.6984 3347338.28479 7.3210001 0 255 0
38602292.7844 3347338.12579 7.40899992 0 255 0
38602292.3834 3347337.96979 7.43100023 255 0 0
38602291.8184 3347337.8028 7.4369998 0 255 0
38602297.3864 3347339.30676 7.40399981 255 0 0
38602297.0834 3347339.23376 7.39900017 255 0 0
38602296.4134 3347339.07678 7.38600016 255 0 0
38602295.6684 3347338.8988 7.37400007 255 0 0
38602294.8014 3347338.69775 7.35599995 255 0 0
38602293.8504 3347338.46576 7.34299994 255 0 0
38602293.2954 3347338.33679 7.33199978 255 0 0
38602292.7774 3347338.1958 7.33099985 0 255 0
38602292.8564 3347338.03778 7.41699982 0 255 0
38602292.4294 3347337.88177 7.43599987 255 0 0
38602297.4034 3347339.22278 7.40600014 255 0 0
38602295.2644 3347338.71777 7.3670001 255 0 0
38602294.3644 3347338.50177 7.35200024 255 0 0
38602292.8744 3347338.11078 7.34399986 255 0 0
38602292.9294 3347337.9538 7.42600012 255 0 0
38602292.0274 3347337.46875 7.53999996 0 255 0
38602297.0864 3347339.07477 7.39599991 255 0 0
38602296.4184 3347338.91681 7.38399982 255 0 0
38602295.6694 3347338.73779 7.37200022 255 0 0
38602293.8324 3347338.30377 7.33799982 255 0 0
38602292.4334 3347337.71875 7.43499994 255 0 0
38602289.3834 3347336.94879 7.40399981 255 0 0
38602297.4314 3347339.05878 7.40799999 255 0 0
38602297.1124 3347338.98779 7.4000001 255 0 0
38602294.8454 3347338.44879 7.36000013 255 0 0
38602293.2714 3347338.08978 7.32600021 255 0 0
38602293.0434 3347337.94177 7.3670001 255 0 0
38602291.8644 3347337.29877 7.51999998 0 255 0
38602289.4054 3347336.86176 7.40700006 255 0 0
38602297.1054 3347338.90277 7.39699984 255 0 0
38602295.2764 3347338.4668 7.36600018 255 0 0
38602294.3564 3347338.25079 7.34899998 255 0 0
38602293.8514 3347338.12976 7.34000015 255 0 0
38602293.1584 3347338.00476 7.30900002 0 255 0
38602293.0534 3347337.69775 7.44199991 255 0 0
38602291.4434 3347337.02881 7.55100012 0 255 0
38602297.4454 3347338.87976 7.40600014 255 0 0
38602296.8304 3347338.72876 7.39799976 255 0 0
38602296.4804 3347338.64777 7.39099979 255 0 0
38602295.7114 3347338.47076 7.37400007 255 0 0
38602294.8594 3347338.26776 7.36000013 255 0 0
38602293.2014 3347337.90979 7.31400013 255 0 0
38602292.4694 3347337.44879 7.4380002 255 0 0
38602291.6824 3347337.11078 7.49700022 0 255 0
38602297.1434 3347338.72278 7.39900017 255 0 0
38602296.1104 3347338.47681 7.38100004 255 0 0
38602295.3134 3347338.2868 7.3670001 255 0 0
38602294.3864 3347338.06976 7.34899998 255 0 0
38602293.3124 3347337.66779 7.40100002 255 0 0
38602293.0934 3347337.51678 7.44399977 255 0 0
38602291.2214 3347337.01379 7.43900013 0 255 0
38602289.7784 3347336.79376 7.35599995 255 0 0
38602297.4584 3347338.71179 7.40299988 255 0 0
38602296.4854 3347338.4798 7.38600016 255 0 0
38602295.7224 3347338.30176 7.37099981 255 0 0
38602294.8784 3347338.09778 7.3579998 255 0 0
38602294.4144 3347337.9848 7.35099983 255 0 0
38602293.8654 3347337.86578 7.33599997 255 0 0
38602293.2754 3347337.73676 7.32000017 255 0 0
38602292.5104 3347337.27777 7.44000006 0 255 0
38602291.9104 3347337.1098 7.44099998 0 255 0
38602292.5964 3347336.95776 7.60400009 0 255 0
38602297.4514 3347338.63477 7.39900017 255 0 0
38602296.1054 3347338.3158 7.375 255 0 0
38602295.2984 3347338.12476 7.36000013 255 0 0
38602294.3984 3347337.90576 7.34700012 255 0 0
38602293.4564 3347337.49976 7.41800022 0 255 0
38602297.4744 3347338.54877 7.40100002 255 0 0
38602297.1624 3347338.47577 7.39499998 255 0 0
38602296.4774 3347338.31775 7.38100004 255 0 0
38602295.7164 3347338.13879 7.3670001 255 0 0
38602294.8644 3347337.93378 7.35300016 255 0 0
38602293.8184 3347337.70276 7.32600021 0 255 0
38602293.1114 3347337.26581 7.44199991 255 0 0
38602292.4944 3347337.11078 7.43499994 0 255 0
38602297.4734 3347338.46381 7.39900017 255 0 0
38602296.1324 3347338.1438 7.37699986 255 0 0
38602295.3034 3347337.9538 7.3579998 255 0 0
38602294.3874 3347337.7348 7.34299994 255 0 0
38602293.7894 3347337.6178 7.3210001 0 255 0
38602293.5854 3347337.32379 7.43400002 0 255 0
38602290.4144 3347336.47076 7.42600012 255 0 0
38602297.1814 3347338.29779 7.39499998 255 0 0
38602296.5074 3347338.13776 7.38199997 255 0 0
38602295.7734 3347337.95575 7.37300014 255 0 0
38602294.8964 3347337.75378 7.35500002 255 0 0
38602294.4194 3347337.64081 7.34600019 255 0 0
38602293.7944 3347337.5238 7.32000017 0 255 0
38602293.6424 3347337.2298 7.44000006 0 255 0
38602293.1564 3347337.0838 7.4460001 255 0 0
38602290.8644 3347336.56976 7.39099979 255 0 0
38602297.2134 3347338.21075 7.39900017 255 0 0
38602296.1824 3347337.96381 7.38100004 255 0 0
38602295.3664 3347337.7738 7.36499977 0 255 0
38602293.7064 3347337.1438 7.44799995 0 255 0
38602295.0744 3347336.98077 7.704 0 255 0
38602291.1304 3347336.48981 7.42199993 255 0 0
38602290.3844 3347336.28979 7.42000008 255 0 0
38602297.2414 3347338.12476 7.40100002 255 0 0
38602296.5624 3347337.96576 7.38800001 255 0 0
38602295.4134 3347337.68579 7.36999989 0 255 0
38602294.9464 3347337.58276 7.35900021 255 0 0
38602294.4894 3347337.46875 7.35300016 255 0 0
38602295.0244 3347337.0318 7.63100004 0 255 0
38602291.6894 3347336.58679 7.40600014 255 0 0
38602291.2484 3347336.4068 7.43400002 255 0 0
38602290.4414 3347336.20477 7.42399979 255 0 0
38602295.8424 3347337.70477 7.37699986 0 255 0
38602293.8244 3347337.27478 7.31699991 0 255 0
38602295.2424 3347336.94678 7.65799999 0 255 0
38602292.0324 3347336.50977 7.4460001 255 0 0
38602291.3454 3347336.32776 7.44199991 255 0 0
38602290.5104 3347336.12677 7.4289999 255 0 0
38602289.5504 3347335.90179 7.40999985 255 0 0
38602295.4444 3347337.51978 7.36800003 0 255 0
38602294.5214 3347337.3028 7.3499999 0 255 0
38602295.5214 3347336.85577 7.69399977 0 255 0
38602297.3144 3347337.86877 7.40199995 255 0 0
38602296.6294 3347337.71075 7.38700008 255 0 0
38602295.8774 3347337.53076 7.37400007 255 0 0
38602295.0494 3347337.32581 7.36299992 0 255 0
38602293.8104 3347337.10278 7.30600023 0 255 0
38602292.7514 3347336.50476 7.45200014 0 255 0
38602291.3804 3347336.15381 7.4380002 255 0 0
38602289.5954 3347335.72778 7.40700006 255 0 0
38602296.2994 3347337.53375 7.38199997 255 0 0
38602295.2474 3347336.95477 7.51900005 0 255 0
38602295.5654 3347336.67975 7.69199991 0 255 0
38602292.0974 3347336.24677 7.44199991 255 0 0
38602291.4004 3347336.06476 7.4369998 255 0 0
38602290.5314 3347335.86176 7.41900015 255 0 0
38602289.6074 3347335.63879 7.40399981 255 0 0
38602297.3654 3347337.68378 7.40299988 255 0 0
38602297.0274 3347337.60876 7.39400005 255 0 0
38602296.6894 3347337.52576 7.38899994 255 0 0
38602295.0984 3347337.14178 7.36299992 0 255 0
38602295.4654 3347336.85278 7.54799986 0 255 0
38602293.3754 3347336.47577 7.45300007 255 0 0
38602292.7934 3347336.3208 7.44999981 255 0 0
38602292.1214 3347336.15277 7.44099998 255 0 0
38602289.7054 3347335.54779 7.41200018 255 0 0
38602296.3574 3347337.34875 7.38399982 255 0 0
38602295.9504 3347337.25879 7.37300014 255 0 0
38602295.4874 3347336.49976 7.67299986 0 255 0
38602293.3934 3347336.38678 7.45100021 255 0 0
38602292.8204 3347336.23279 7.44999981 255 0 0
38602291.4534 3347335.88177 7.43599987 255 0 0
38602290.6304 3347335.68079 7.42399979 255 0 0
38602297.3934 3347337.5108 7.39900017 255 0 0
38602296.7344 3347337.35077 7.38800001 255 0 0
38602295.9894 3347337.17078 7.375 255 0 0
38602295.5724 3347337.07275 7.3670001 0 255 0
38602294.0394 3347336.44275 7.46500015 255 0 0
38602293.4654 3347336.30078 7.45699978 255 0 0
38602290.7194 3347335.5968 7.42999983 255 0 0
38602289.7624 3347335.3728 7.40999985 255 0 0
38602296.0504 3347337.08679 7.38100004 255 0 0
38602295.2524 3347336.87976 7.37400007 0 255 0
38602295.5074 3347336.73077 7.47900009 0 255 0
38602292.9274 3347336.0658 7.45499992 255 0 0
38602292.3124 3347335.8988 7.45300007 255 0 0
38602291.5644 3347335.7168 7.44099998 255 0 0
38602290.8234 3347335.5188 7.4380002 255 0 0
38602289.8494 3347335.2948 7.41599989 255 0 0
38602295.6704 3347336.89978 7.37400007 0 255 0
38602295.5264 3347336.5108 7.53999996 0 255 0
38602294.4844 3347336.40979 7.44999981 255 0 0
38602294.1234 3347336.27277 7.46700001 255 0 0
38602293.5564 3347336.13177 7.46000004 255 0 0
38602292.9794 3347335.97778 7.45599985 255 0 0
38602291.6464 3347335.62976 7.4460001 255 0 0
38602296.8244 3347337.08777 7.38899994 255 0 0
38602296.0784 3347336.90875 7.375 255 0 0
38602295.2784 3347336.70178 7.3670001 0 255 0
38602295.3934 3347336.42578 7.51399994 0 255 0
38602294.5274 3347336.31775 7.45100021 255 0 0
38602293.0194 3347335.88678 7.45599985 255 0 0
38602292.3674 3347335.71979 7.44899988 255 0 0
38602291.6544 3347335.53876 7.44099998 255 0 0
38602290.8854 3347335.33978 7.43300009 255 0 0
38602289.9354 3347335.1178 7.41400003 255 0 0
38602295.7024 3347336.71478 7.36899996 0 255 0
38602294.1944 3347336.08679 7.46700001 255 0 0
38602293.6124 3347335.9458 7.45699978 255 0 0
38602296.8274 3347336.90875 7.38199997 255 0 0
38602296.0954 3347336.72778 7.36999989 255 0 0
38602295.3174 3347336.51978 7.36600018 0 255 0
38602295.3294 3347336.38275 7.43300009 0 255 0
38602294.5034 3347336.13678 7.44000006 0 255 0
38602293.5934 3347335.85779 7.45200014 255 0 0
38602293.0284 3347335.7038 7.44999981 255 0 0
38602292.3574 3347335.5368 7.44000006 255 0 0
38602289.9304 3347334.9328 7.40600014 255 0 0
38602294.6774 3347336.33276 7.32700014 0 255 0
38602294.1534 3347335.91479 7.45499992 255 0 0
38602293.5904 3347335.77277 7.44799995 255 0 0
38602291.6714 3347335.26978 7.43300009 255 0 0
38602290.9034 3347335.0708 7.42500019 255 0 0
38602295.7154 3347336.46381 7.36199999 0 255 0
38602294.7514 3347336.10577 7.40399981 255 0 0
38602293.6254 3347335.6908 7.45100021 255 0 0
38602292.3864 3347335.36975 7.44000006 255 0 0
38602289.9744 3347334.76581 7.40600014 255 0 0
38602296.8734 3347336.65479 7.38100004 255 0 0
38602296.1464 3347336.47278 7.37099981 255 0 0
38602295.3344 3347336.26581 7.36100006 0 255 0
38602294.5044 3347335.88275 7.43300009 255 0 0
38602294.1754 3347335.74475 7.45499992 255 0 0
38602293.0634 3347335.44775 7.44799995 255 0 0
38602292.4144 3347335.27979 7.44099998 255 0 0
38602291.6954 3347335.09778 7.43300009 255 0 0
38602290.9454 3347334.8988 7.42700005 255 0 0
38602290.0224 3347334.67676 7.40999985 255 0 0
38602297.2404 3347336.64679 7.38800001 255 0 0
38602296.1814 3347336.38177 7.37300014 255 0 0
38602295.7514 3347336.28479 7.36199999 0 255 0
38602295.3404 3347336.1778 7.3579998 0 255 0
38602294.8864 3347336.06378 7.35200024 0 255 0
38602294.2114 3347335.65479 7.45699978 255 0 0
38602293.7144 3347335.51178 7.45900011 255 0 0
38602293.1374 3347335.35779 7.45499992 255 0 0
38602291.0204 3347334.81079 7.43300009 255 0 0
38602296.9484 3347336.46576 7.38600016 255 0 0
38602296.2214 3347336.28479 7.375 255 0 0
38602294.9404 3347335.9668 7.35599995 0 255 0
38602294.5204 3347335.69775 7.42799997 0 255 0
38602292.5344 3347335.09576 7.44999981 255 0 0
38602291.8814 3347334.91577 7.44799995 255 0 0
38602291.0824 3347334.7168 7.4369998 255 0 0
38602290.1984 3347334.4978 7.42299986 255 0 0
38602296.9984 3347336.3728 7.38999987 255 0 0
38602295.8604 3347336.09479 7.36999989 255 0 0
38602294.2524 3347335.46979 7.45300007 255 0 0
38602293.8494 3347335.32581 7.46799994 255 0 0
38602292.6084 3347335.00677 7.454 255 0 0
38602290.2764 3347334.41077 7.42700005 255 0 0
38602297.0124 3347336.2868 7.38600016 255 0 0
38602296.3184 3347336.10376 7.38100004 255 0 0
38602295.4424 3347335.90381 7.35900021 255 0 0
38602294.5414 3347335.52277 7.42000008 0 255 0
38602293.2864 3347335.08679 7.46000004 255 0 0
38602292.6674 3347334.92078 7.45699978 255 0 0
38602291.9494 3347334.74078 7.44700003 255 0 0
38602290.3044 3347334.32477 7.42500019 255 0 0
38602295.8934 3347335.92578 7.36600018 255 0 0
38602295.0084 3347335.70776 7.35099983 255 0 0
38602294.2424 3347335.30176 7.44199991 255 0 0
38602291.1814 3347334.4588 7.43400002 255 0 0
38602297.0314 3347336.1178 7.38000011 255 0 0
38602296.3004 3347335.93677 7.36899996 255 0 0
38602293.8564 3347335.06775 7.45599985 255 0 0
38602293.2974 3347334.91479 7.454 255 0 0
38602290.2634 3347334.1488 7.41300011 255 0 0
38602295.9094 3347335.7478 7.36000013 255 0 0
38602295.3334 3347335.65076 7.329 255 0 0
38602294.5244 3347335.26276 7.40600014 0 255 0
38602294.2714 3347335.12177 7.43900013 255 0 0
38602292.6634 3347334.65778 7.44500017 255 0 0
38602291.9654 3347334.47577 7.4380002 255 0 0
38602291.2444 3347334.27979 7.43499994 255 0 0
38602289.8404 3347334.0368 7.36299992 255 0 0
38602297.0804 3347335.92877 7.38100004 255 0 0
38602296.3724 3347335.74677 7.37300014 255 0 0
38602295.3664 3347335.5528 7.32999992 255 0 0
38602295.0494 3347335.43176 7.34600019 255 0 0
38602294.8064 3347335.30078 7.37599993 255 0 0
38602293.9444 3347334.87976 7.46099997 255 0 0
38602293.3874 3347334.72681 7.46000004 255 0 0
38602292.0684 3347334.3808 7.44799995 255 0 0
38602295.9634 3347335.56079 7.36100006 255 0 0
38602294.5544 3347335.07678 7.40299988 255 0 0
38602294.2914 3347334.93579 7.43499994 255 0 0
38602293.9574 3347334.79077 7.45900011 255 0 0
38602293.4034 3347334.63776 7.45800018 255 0 0
38602292.7624 3347334.4718 7.45100021 255 0 0
38602291.6584 3347334.2818 7.39400005 255 0 0
38602296.3974 3347335.57275 7.36899996 255 0 0
38602295.0934 3347335.25677 7.34499979 255 0 0
38602294.0004 3347334.70477 7.46099997 255 0 0
38602292.6824 3347334.38477 7.4369998 255 0 0
38602297.1404 3347335.67175 7.37900019 255 0 0
38602296.4244 3347335.48981 7.36999989 255 0 0
38602295.4374 3347335.29578 7.32999992 255 0 0
38602294.8604 3347335.04376 7.37200022 255 0 0
38602294.5884 3347334.90875 7.4000001 255 0 0
38602293.4704 3347334.46979 7.45900011 255 0 0
38602296.8204 3347335.49475 7.375 255 0 0
38602296.0374 3347335.3028 7.36100006 255 0 0
38602295.1564 3347335.08478 7.34600019 255 0 0
38602294.6184 3347334.81976 7.4000001 255 0 0
38602294.3414 3347334.67975 7.42999983 255 0 0
38602293.8304 3347334.38177 7.50299978 255 0 0
38602296.4584 3347335.31281 7.36800003 255 0 0
38602295.4794 3347335.1178 7.329 255 0 0
38602295.1814 3347334.99579 7.34700012 255 0 0
38602294.9304 3347334.86578 7.375 255 0 0
38602294.0594 3347334.44476 7.45900011 255 0 0
38602290.3914 3347333.52478 7.40399981 255 0 0
38602296.8504 3347335.3158 7.37300014 255 0 0
38602296.0444 3347335.12579 7.35500002 255 0 0
38602295.2174 3347334.90381 7.3499999 0 255 0
38602294.6824 3347334.63879 7.40399981 255 0 0
38602294.3834 3347334.49976 7.42999983 255 0 0
38602294.0964 3347334.35376 7.46099997 255 0 0
38602291.2684 3347333.65179 7.41400003 255 0 0
38602296.5214 3347335.12378 7.37200022 255 0 0
38602295.5484 3347334.9278 7.33400011 255 0 0
38602295.0074 3347334.67578 7.38100004 255 0 0
38602294.7274 3347334.54181 7.40799999 255 0 0
38602294.4544 3347334.40179 7.4369998 255 0 0
38602296.9154 3347335.12579 7.37900019 255 0 0
38602296.0364 3347334.9408 7.34800005 255 0 0
38602295.3094 3347334.71277 7.35900021 255 0 0
38602294.4814 3347334.31079 7.43900013 255 0 0
38602296.5494 3347334.94476 7.36999989 255 0 0
38602295.0704 3347334.49579 7.38500023 255 0 0
38602294.8034 3347334.36078 7.41300011 255 0 0
38602293.2644 3347333.76379 7.49100018 255 0 0
38602296.6104 3347334.85779 7.37699986 255 0 0
38602296.0604 3347334.76978 7.34499979 255 0 0
38602295.6784 3347334.66077 7.34499979 255 0 0
38602293.4604 3347333.68176 7.51300001 255 0 0
38602296.5954 3347334.77075 7.36999989 255 0 0
38602294.2554 3347333.90277 7.46799994 255 0 0
38602293.7014 3347333.75079 7.46500015 255 0 0
38602290.6884 3347332.98981 7.42199993 255 0 0
38602296.6474 3347334.6748 7.37400007 255 0 0
38602295.7474 3347334.47577 7.34700012 255 0 0
38602295.4734 3347334.35278 7.36899996 255 0 0
38602290.8114 3347332.90076 7.43200016 255 0 0
38602296.0824 3347334.49176 7.33500004 255 0 0
38602295.7894 3347334.37677 7.3499999 255 0 0
38602294.7294 3347333.8548 7.45599985 255 0 0
38602294.2384 3347333.71277 7.45800018 255 0 0
38602291.6714 3347333.0188 7.44099998 255 0 0
38602296.6924 3347334.48578 7.37400007 255 0 0
38602296.1224 3347334.3988 7.33799982 255 0 0
38602295.0574 3347333.90076 7.43200016 255 0 0
38602294.7214 3347333.76379 7.45100021 255 0 0
38602293.0494 3347333.30176 7.4460001 255 0 0
38602292.4524 3347333.12378 7.44999981 255 0 0
38602291.6874 3347332.92676 7.44000006 255 0 0
38602290.8764 3347332.71179 7.43300009 255 0 0
38602295.3514 3347333.94476 7.40500021 255 0 0
38602294.3004 3347333.53278 7.45900011 255 0 0
38602296.7064 3347334.3158 7.36999989 255 0 0
38602295.4014 3347333.8598 7.40999985 255 0 0
38602293.8074 3347333.29578 7.46299982 255 0 0
38602293.1334 3347333.12976 7.45100021 255 0 0
38602290.8774 3347332.53778 7.42799997 255 0 0
38602295.9694 3347334.01776 7.3670001 255 0 0
38602295.7164 3347333.89575 7.39099979 255 0 0
38602293.7874 3347333.20575 7.45800018 255 0 0
38602292.5104 3347332.86176 7.44999981 255 0 0
38602291.7484 3347332.66479 7.44000006 255 0 0
38602296.2394 3347334.04181 7.34499979 255 0 0
38602296.0604 3347333.9198 7.37900019 255 0 0
38602294.9124 3347333.4068 7.46799994 255 0 0
38602294.4564 3347333.26477 7.47399998 255 0 0
38602293.8474 3347333.11279 7.46400023 255 0 0
38602291.7814 3347332.57178 7.44199991 255 0 0
38602290.9554 3347332.35577 7.43300009 255 0 0
38602296.4444 3347333.93176 7.37699986 255 0 0
38602294.9704 3347333.30975 7.47399998 255 0 0
38602293.2324 3347332.85077 7.45699978 255 0 0
38602292.5724 3347332.67175 7.45300007 255 0 0
38602291.8054 3347332.47479 7.44299984 255 0 0
38602295.0144 3347333.21875 7.47800016 255 0 0
38602294.4544 3347333.0788 7.46899986 255 0 0
38602293.9054 3347332.92578 7.46700001 255 0 0
38602296.6864 3347333.86676 7.3499999 255 0 0
38602295.7874 3347333.39081 7.45599985 255 0 0
38602295.4294 3347333.26379 7.46799994 255 0 0
38602294.9934 3347333.1308 7.47200012 255 0 0
38602293.3064 3347332.67279 7.46199989 255 0 0
38602292.6224 3347332.4928 7.45499992 255 0 0
38602291.8384 3347332.29578 7.44299984 255 0 0
38602296.8264 3347333.77277 7.37200022 255 0 0
38602296.1284 3347333.42676 7.44199991 255 0 0
38602295.8314 3347333.30475 7.46000004 255 0 0
38602295.0344 3347333.04578 7.4749999 255 0 0
38602294.4944 3347332.90479 7.46899986 255 0 0
38602293.9184 3347332.75281 7.46400023 255 0 0
38602296.2934 3347333.46075 7.40199995 255 0 0
38602296.1684 3347333.33478 7.44500017 255 0 0
38602295.4724 3347333.08777 7.46799994 255 0 0
38602293.3904 3347332.4978 7.46700001 255 0 0
38602292.6624 3347332.31677 7.454 255 0 0
38602295.8904 3347333.12079 7.46199989 255 0 0
38602295.0814 3347332.86176 7.4749999 255 0 0
38602294.5654 3347332.72076 7.47200012 255 0 0
38602293.9884 3347332.56879 7.46600008 255 0 0
38602293.4034 3347332.40381 7.46500015 255 0 0
38602296.8084 3347333.49878 7.35599995 255 0 0
38602296.5264 3347333.25977 7.43200016 255 0 0
38602295.5214 3347332.89777 7.46799994 255 0 0
38602294.0184 3347332.4718 7.46600008 255 0 0
38602293.3684 3347332.30579 7.45699978 255 0 0
38602296.2254 3347333.05475 7.44199991 255 0 0
38602295.9054 3347332.93378 7.45599985 255 0 0
38602295.0564 3347332.67578 7.46400023 255 0 0
38602294.5564 3347332.53375 7.46400023 255 0 0
38602296.1164 3347332.39178 7.74399996 0 255 0
38602296.5544 3347333.08276 7.42999983 255 0 0
38602295.5304 3347332.72076 7.46299982 255 0 0
38602293.4864 3347332.28979 7.38999987 255 0 0
38602296.2834 3347332.88177 7.44700003 255 0 0
38602295.1054 3347332.50281 7.46700001 255 0 0
38602296.2814 3347332.35181 7.69899988 0 255 0
38602296.5884 3347332.90576 7.43100023 255 0 0
38602295.9464 3347332.6698 7.45499992 255 0 0
38602295.5664 3347332.54279 7.46400023 255 0 0
38602296.6344 3347332.81281 7.43499994 255 0 0
38602296.3544 3347332.69678 7.45200014 0 255 0
38602295.9704 3347332.57776 7.45599985 0 255 0
38602296.6824 3347332.7168 7.43900013 255 0 0
38602296.0254 3347332.48175 7.46099997 0 255 0
38602296.4334 3347332.49976 7.45800018 0 255 0
38602296.6814 3347332.52679 7.43200016 255 0 0
38602296.3684 3347332.27881 7.50699997 0 255 0
38602296.4874 3347332.31677 7.46000004 0 255 0
38602281.9658 3347350.06427 7.03499985 255 0 0
38602282.0918 3347349.92822 7.04300022 255 0 0
38602281.9808 3347349.81622 7.02799988 255 0 0
38602281.9268 3347349.62927 7.02199984 255 0 0
38602282.0398 3347349.57227 7.03599977 255 0 0
38602281.9578 3347349.47424 7.02600002 255 0 0
38602286.1408 3347349.17322 7.07299995 255 0 0
38602286.2438 3347349.01923 7.08599997 255 0 0
38602286.2038 3347348.92627 7.07800007 255 0 0
38602286.2978 3347348.61023 7.08300018 255 0 0
38602286.3078 3347348.26825 7.07700014 255 0 0
38602286.2828 3347348.17426 7.0710001 255 0 0
38602286.3158 3347347.99426 7.07200003 255 0 0
38602288.1408 3347348.30225 7.1329999 0 255 0
38602288.0968 3347348.12726 7.12300014 0 255 0
38602288.1498 3347347.95923 7.12900019 0 255 0
38602288.2558 3347347.89026 7.1420002 0 255 0
38602286.4488 3347347.40723 7.079 255 0 0
38602288.2778 3347347.71924 7.13899994 0 255 0
38602288.1778 3347347.61322 7.11999989 255 0 0
38602288.2758 3347347.45728 7.13199997 255 0 0
38602289.8038 3347347.69824 7.18400002 255 0 0
38602288.3128 3347347.37225 7.13399982 0 255 0
38602286.4518 3347346.96527 7.06699991 255 0 0
38602277.4888 3347345.00726 6.7670002 0 255 0
38602289.9318 3347347.63324 7.20100021 255 0 0
38602288.4648 3347347.31226 7.15299988 255 0 0
38602286.6608 3347346.91827 7.09200001 255 0 0
38602277.7608 3347344.97223 6.79099989 0 255 0
38602289.9048 3347347.54126 7.19199991 255 0 0
38602278.0238 3347344.94122 6.8130002 0 255 0
38602288.4808 3347347.14624 7.14599991 255 0 0
38602286.6808 3347346.75226 7.08500004 255 0 0
38602278.2658 3347344.91022 6.83400011 0 255 0
38602278.4518 3347344.86725 6.84899998 0 255 0
38602289.9048 3347347.28925 7.17999983 0 255 0
38602288.4368 3347346.96722 7.1329999 0 255 0
38602278.6848 3347344.83124 6.87099981 0 255 0
38602286.5738 3347346.46826 7.0619998 255 0 0
38602278.8288 3347344.77026 6.88700008 0 255 0
38602289.9148 3347347.10822 7.1789999 255 0 0
38602279.3928 3347344.79724 6.64099979 0 255 0
38602279.0428 3347344.72327 6.91099977 0 255 0
38602290.0128 3347347.04224 7.19399977 0 255 0
38602288.5348 3347346.71826 7.14400005 0 255 0
38602279.5658 3347344.74622 6.66099977 0 255 0
38602279.3158 3347344.69427 6.93900013 0 255 0
38602279.7888 3347344.70825 6.68499994 0 255 0
38602279.4578 3347344.63922 6.95300007 0 255 0
38602290.0788 3347346.88824 7.19899988 0 255 0
38602280.0018 3347344.66925 6.70699978 0 255 0
38602279.5598 3347344.57526 6.96099997 0 255 0
38602288.5848 3347346.46924 7.1420002 0 255 0
38602286.7748 3347346.07025 7.079 255 0 0
38602290.1498 3347346.71924 7.20200014 0 255 0
38602288.7178 3347346.40424 7.15799999 255 0 0
38602286.9478 3347346.01422 7.09899998 255 0 0
38602280.3368 3347344.55524 6.73699999 0 255 0
38602279.6918 3347344.41626 6.96400023 0 255 0
38602291.3028 3347346.87927 7.2249999 255 0 0
38602290.0958 3347346.61322 7.1880002 255 0 0
38602288.6368 3347346.29126 7.14099979 0 255 0
38602286.8758 3347345.90326 7.08400011 255 0 0
38602279.7078 3347344.32324 6.96099997 0 255 0
38602290.1118 3347346.52826 7.1869998 255 0 0
38602280.5518 3347344.41724 6.75500011 0 255 0
38602291.2958 3347346.70728 7.21700001 255 0 0
38602288.6388 3347346.12024 7.13399982 0 255 0
38602280.6178 3347344.34827 6.75899982 0 255 0
38602279.6798 3347344.14325 6.95200014 0 255 0
38602291.2688 3347346.53326 7.20699978 255 0 0
38602290.0808 3347346.27026 7.17500019 255 0 0
38602288.5738 3347345.93726 7.11999989 0 255 0
38602288.6238 3347345.85925 7.12599993 0 255 0
38602286.8218 3347345.46027 7.06400013 255 0 0
38602290.1118 3347346.09723 7.17500019 255 0 0
38602279.7468 3347343.80426 6.95200014 255 0 0
38602292.3598 3347346.50824 7.24100018 255 0 0
38602291.3228 3347346.27924 7.20900011 255 0 0
38602288.6908 3347345.69623 7.13100004 0 255 0
38602286.8538 3347345.28925 7.0630002 255 0 0
38602279.7988 3347343.72723 6.95499992 255 0 0
38602290.1538 3347345.93726 7.17500019 255 0 0
38602279.8588 3347343.65625 6.95699978 255 0 0
38602288.7538 3347345.54523 7.13999987 255 0 0
38602286.9488 3347345.14526 7.07700014 255 0 0
38602292.4338 3347346.27722 7.25600004 255 0 0
38602288.8088 3347345.47327 7.15399981 255 0 0
38602279.9148 3347343.50024 6.97800016 255 0 0
38602290.2138 3347345.69727 7.1880002 255 0 0
38602287.0558 3347344.99524 7.09399986 255 0 0
38602292.4398 3347346.09924 7.24800014 255 0 0
38602291.4268 3347345.87427 7.22100019 255 0 0
38602288.7598 3347345.28125 7.13700008 255 0 0
38602290.2118 3347345.51123 7.1789999 255 0 0
38602293.3538 3347346.12225 7.27199984 255 0 0
38602291.4418 3347345.69727 7.21600008 255 0 0
38602288.7998 3347345.10925 7.13700008 255 0 0
38602292.5128 3347345.85126 7.25199986 255 0 0
38602288.8208 3347345.03027 7.13800001 255 0 0
38602286.9408 3347344.61127 7.06400013 255 0 0
38602293.3998 3347345.96722 7.27400017 255 0 0
38602290.2488 3347345.26526 7.17600012 255 0 0
38602293.4188 3347345.88525 7.2750001 255 0 0
38602292.5248 3347345.68622 7.24700022 255 0 0
38602291.4818 3347345.45325 7.21400023 255 0 0
38602288.8658 3347344.87024 7.13800001 255 0 0
38602287.0518 3347344.46625 7.07399988 255 0 0
38602291.4978 3347345.36523 7.21299982 255 0 0
38602290.3008 3347345.09827 7.17799997 255 0 0
38602293.4338 3347345.70526 7.26999998 255 0 0
38602292.5368 3347345.50525 7.2420001 255 0 0
38602288.8518 3347344.68225 7.13000011 255 0 0
38602287.0388 3347344.27826 7.06699991 255 0 0
38602290.2758 3347344.91327 7.16900015 255 0 0
38602286.9748 3347344.17627 7.05600023 255 0 0
38602294.2328 3347345.71326 7.29199982 255 0 0
38602293.4508 3347345.53827 7.26800013 255 0 0
38602291.5178 3347345.10626 7.20900011 255 0 0
38602288.8518 3347344.51025 7.12699986 255 0 0
38602287.0408 3347344.10626 7.06400013 255 0 0
38602292.5258 3347345.24823 7.2329998 255 0 0
38602291.4628 3347345.01025 7.19700003 255 0 0
38602288.7728 3347344.40826 7.11299992 255 0 0
38602292.5338 3347345.16022 7.23199987 255 0 0
38602291.4838 3347344.92523 7.19899988 255 0 0
38602290.2918 3347344.65924 7.16599989 255 0 0
